# .PCD v0.7 - Point Cloud Data file format
VERSION 0.7
FIELDS x y z
SIZE 4 4 4
TYPE F F F
COUNT 1 1 1
WIDTH 1465
HEIGHT 1
VIEWPOINT 0 0 0 1 0 0 0
POINTS 1465
DATA ascii
0.0515 0.017802835 0.035900727
0.0515 0.050665155 0.039402783
0.042020887 0.04467215 -0.0515
0.0515 -0.00090001634 0.012902837
-0.037489876 -0.043646201 0.0515
-0.043216284 0.013700861 -0.0515
-0.0515 -0.019631142 -0.049884737
-0.0098082731 0.048714299 0.0515
-0.0035538431 -0.0515 -0.0091495765
0.0033175279 -0.0515 0.038648799
-0.049260635 0.0515 -0.021526366
0.043294571 0.0014445347 -0.0515
0.0023729275 -0.0515 0.048402976
0.037049092 -0.0515 -0.029809747
-0.02892508 -0.0515 -0.02347949
-0.019090561 -0.00345504 -0.0515
-0.020141192 -0.0074458458 -0.0515
-0.0063406201 0.0515 -0.032589354
-0.033127543 -0.0515 -0.032357506
0.046502233 0.0515 0.0014579996
0.019746428 -0.0515 -0.023945777
-0.0515 0.049350679 0.035449505
-0.042866632 -0.003596676 -0.0515
0.0515 -0.033491418 -0.048493225
-0.0515 0.02000683 -0.010875284
0.0075445846 0.0515 0.045266397
0.029400382 -0.047456078 -0.0515
0.0515 0.04326348 -0.031789709
-0.0515 -0.037746891 0.017544586
0.0082185175 -0.0515 0.0010146424
-0.0515 0.030189786 0.013031061
-0.020658221 0.0515 0.011310861
-0.03107788 0.041645974 -0.0515
-0.049441475 0.0515 -0.042904466
-0.014692383 0.0515 0.048915904
0.044036228 -0.00067882711 0.0515
0.024079207 -0.0515 -0.031451326
-0.04755 0.0515 -0.047679946
-0.023251809 -0.0515 -0.025022151
0.0515 0.020852625 -0.010575048
-0.0069847456 0.038472515 -0.0515
-0.0515 -0.041593235 0.050800275
0.019849867 -0.022832241 0.0515
0.0515 0.035270721 0.029075919
0.045637041 0.0515 0.0014533697
0.034895696 0.029919505 -0.0515
0.023277069 -0.0016519855 -0.0515
0.048284993 0.0064377184 -0.0515
0.0515 0.039737247 -0.035266835
-0.028714171 0.049852364 0.0515
0.0515 -0.051128507 0.022581734
0.0515 -0.021417417 0.033039432
0.034262508 0.0515 -0.044118218
0.031491764 0.028832903 0.0515
-0.0515 0.0068969131 0.03239958
0.0515 -0.029702425 -0.0072720987
0.026146106 -0.049534034 0.0515
0.032550305 0.0515 0.0012751644
0.037372619 0.0515 -0.011027202
-0.0515 -0.021412179 -0.029105624
0.037606269 -0.0515 0.00079244806
-0.0066789812 0.0515 0.046023026
-0.05045221 0.032940175 0.0515
-0.0515 -0.042931039 -0.017329855
0.0515 0.0036742701 0.048723102
0.038039148 -0.0515 -0.0338085
-0.037133586 0.0515 -0.010207955
-0.0515 0.038681228 -0.013852925
0.038966853 0.0515 -0.040609643
-0.0515 0.0173549 0.01871099
-0.0515 0.0035005214 0.037819937
0.026777567 0.0515 0.0095986659
0.014106333 -0.0515 -0.031701922
-0.040100805 -0.022422602 0.0515
0.050177567 -0.0080699883 -0.0515
0.0423504 -0.0515 -0.012503095
-0.0515 -0.033518866 -0.015076857
0.0089562554 -0.021196697 -0.0515
0.046908878 0.0515 0.036563739
-0.017901074 -0.0515 0.001298586
-0.0515 -0.027448764 -0.048751164
0.02053511 0.049524385 0.0515
-0.032034744 0.01080589 -0.0515
0.0079720672 0.0515 0.011182287
-0.035426784 0.036855005 -0.0515
-0.025043648 0.020704221 -0.0515
0.04596528 0.0515 -0.0098239025
-0.0515 -0.024350099 0.04699745
-0.025872199 -0.036501851 0.0515
-0.051049653 0.017520726 0.0515
0.023196507 0.012506292 -0.0515
0.025467338 -0.02079167 -0.0515
0.0515 0.02082373 0.021702096
0.0515 -0.044061299 0.010641352
-0.0028883372 -0.0515 -0.035781663
0.0046456838 0.022130784 -0.0515
0.035563983 -0.0080159195 0.0515
-0.049181722 0.014469226 -0.0515
0.0515 0.047100075 -0.0077921147
0.032534875 -0.040288813 -0.0515
0.016212145 0.0515 0.021706048
0.017525909 0.008340884 0.0515
0.047360275 -0.0515 0.011903364
-0.037392065 -0.0515 0.035792157
0.043009091 0.022269314 -0.0515
-0.045415059 -0.051454928 0.0515
-0.024158768 0.0515 -0.031993866
-0.0515 -0.051371064 0.04225051
-0.031128561 -0.0515 0.033545621
0.023046127 0.049596909 0.0515
0.045626603 -0.0015890748 0.0515
-0.021151669 -0.0515 -0.027305657
-0.030769981 0.0515 0.01864264
0.045388658 -0.0515 0.040173229
0.0072123995 0.0515 -0.0005328629
0.02499429 -0.0515 0.040580284
-0.027924651 0.0030926245 0.0515
0.025466334 0.021847546 0.0515
-0.0058421642 0.0515 0.050785594
-0.0515 0.0089002037 0.046617337
-0.0515 -0.03307486 -0.035528079
0.0515 0.016120674 -0.015821068
-0.039565269 0.0515 -0.035190683
0.0515 0.047251977 -0.032279562
0.024042271 -0.03761258 -0.0515
-0.043578535 0.0515 -0.00086580019
0.033396747 -0.012203524 -0.0515
-0.001209829 -0.0515 0.012519613
-0.0515 -0.0054159784 -0.0030851439
-0.041492328 0.022024971 -0.0515
0.0515 0.044901017 -0.028597452
-0.048727311 0.024069574 0.0515
0.00038082516 0.0515 0.045819588
0.0515 0.038826481 0.023337932
-0.0515 -0.025451424 0.047500692
-0.024836434 -0.016693216 0.0515
0.049615663 -0.0515 -0.03565599
0.0515 0.031080943 -0.033897512
-0.0097478377 0.0515 0.032450955
0.047638215 -0.0515 -0.0026422138
0.051153049 0.0515 -0.023148293
-0.028377973 -0.046654146 0.0515
-0.0515 0.0078934096 0.050952617
0.0515 -0.025436712 0.002615442
0.010616548 -0.034889668 0.0515
-0.0010815228 0.01627766 -0.0515
-0.035732359 -0.033367883 -0.0515
0.020285657 -0.032704718 -0.0515
0.0515 0.012649221 0.050091062
0.029661678 0.0024404894 -0.0515
-0.027705852 -0.0046131155 0.0515
0.005054283 0.020351749 -0.0515
0.0063076196 0.0515 0.013913247
-0.014357563 0.04068948 0.0515
0.0515 -0.019064572 -0.04124748
0.03297843 0.0515 0.041078269
0.0515 -0.036530398 -0.044923626
-0.033555876 0.0515 -0.015348591
-0.024900677 0.042109419 0.0515
-0.0515 0.033038992 0.0033098217
-0.024566518 0.044887662 0.0515
-0.0515 -0.0083998293 0.03307813
-0.022503611 0.0515 -0.0020186524
0.0515 -0.014129505 -0.033027958
0.0515 -0.040283266 0.024210712
0.043188222 -0.0515 -0.0063731465
0.019414485 0.0515 0.021971414
0.047092583 -0.0515 0.01348262
-0.0515 -0.017077615 -0.00019711784
-0.046876024 0.021211453 -0.0515
0.026640875 0.050584327 -0.0515
0.028927373 -0.0515 0.0063874396
-0.0515 -0.0194191 0.013977389
0.038709782 -0.02200963 0.0515
-0.045379397 -0.0515 -0.026597468
0.024205297 0.0515 -0.02417263
-0.0515 0.011944655 -0.041464701
0.0515 -0.014364192 -0.023501728
-0.017376358 0.02304465 0.0515
0.0515 0.039115999 -0.013472824
-0.0515 0.0036060258 -0.024367964
-0.0515 -0.043028835 -0.0056099975
0.026113097 0.0087917512 0.0515
-0.046363596 -0.018354313 -0.0515
-0.0515 -0.0010227592 -0.039740477
-0.0084087374 -0.049967404 -0.0515
0.047739666 -0.03118852 0.0515
0.0515 -0.038242005 -0.03589977
-0.032478601 0.012527737 0.0515
-0.0515 -0.0019404985 0.012771458
-0.0052184262 0.0092677707 -0.0515
0.0515 0.044640679 -0.028125534
-0.032915149 -0.007744208 0.0515
-0.0515 0.025875775 -0.024794674
-0.020273823 0.0515 0.044329192
0.01189874 -0.019199885 -0.0515
0.035361666 -0.0515 -0.017757479
0.0071292608 -0.0515 0.00088653981
0.029872386 -0.019245401 -0.0515
0.022113245 -0.0515 0.037806045
-0.048725922 0.0515 -0.050716281
-0.031725097 0.020402808 0.0515
0.018649178 0.0515 -0.028506232
0.006139447 -0.0515 0.049844436
0.0515 -0.018728146 0.046712626
0.021944454 0.0515 -0.03634676
0.040753879 0.0515 -0.050855219
-0.0515 -0.019384202 -0.028379573
0.0089519387 -0.0515 0.012638826
0.016244441 0.012489529 -0.0515
-0.037188128 0.034074187 0.0515
-0.017399048 -0.0515 0.0040142499
-0.0515 0.030155925 -0.016205473
-0.0003976475 -0.0515 -0.016815096
-0.0032308716 -0.0515 0.036662716
-0.028588921 0.0515 0.039958343
-0.01659563 0.0515 0.027865147
0.032376975 0.014108819 0.0515
0.0515 -0.035244018 0.046295024
0.01366411 0.0515 0.0081296926
0.011407224 -0.0515 -0.021015961
-0.001328617 -0.040678732 -0.0515
-0.050720349 0.0092607187 -0.0515
-0.0075867707 -0.0515 -0.029968755
0.0515 0.0086907558 -0.018522561
0.016766839 0.0515 -0.041512966
-0.029707924 -0.029374002 0.0515
0.049384587 -0.0515 -0.022857863
0.02948842 -0.0515 -0.0012164977
0.048195019 0.044659708 -0.0515
-0.0515 -0.04422785 -0.02823467
0.0074865394 0.0515 0.045799498
0.0515 0.038841348 -0.02411365
0.0515 -0.03334837 -0.012290249
-0.036745202 -0.046591554 0.0515
0.006754471 0.031194098 0.0515
0.02892923 -0.0515 -0.034748893
-0.0044365339 0.0515 -0.020817703
0.0515 0.038585003 -0.020556115
-0.026396878 -0.013145281 -0.0515
0.023029624 0.03139763 -0.0515
0.0515 -0.041701652 -0.050322238
0.0183951 -0.0515 0.041448131
0.0515 0.048333008 -0.042368166
-0.015932634 -0.0515 -0.042983022
-0.020330958 0.022106029 0.0515
-0.033952262 -0.01025506 0.0515
-0.011223781 0.042638618 0.0515
0.0515 0.034840953 0.036218956
-0.044102453 0.046129994 -0.0515
-0.0515 -0.00039369173 0.022106631
-0.0051008114 -0.012147385 0.0515
0.0061025005 -0.0515 0.042832408
-0.0098444363 -0.0515 0.035325844
0.0027502831 -0.0049009277 0.0515
0.035231885 0.0515 0.014169256
0.010766773 0.0515 0.051183943
0.011117272 -0.015032313 0.0515
0.0023781587 -0.0515 3.2020871e-05
-0.0515 -0.044466574 -0.013155154
-0.036746468 -0.016424397 0.0515
0.0515 0.049299084 -0.022932081
0.0515 -0.038240314 -0.021403661
-0.0017153284 0.0515 0.002266926
-0.023890747 -0.01867553 0.0515
-0.033937074 -0.0515 0.030993365
0.0515 0.02581678 0.050186358
0.041563615 -0.043991856 -0.0515
0.027054686 0.0515 -0.048600398
-0.048117828 0.0515 -0.00087096688
0.0050962991 -0.0515 0.047576427
-0.0053963256 0.0515 0.022302326
0.03666969 0.014338127 -0.0515
-0.035099238 -0.0515 0.051225368
0.045096517 -0.021275666 -0.0515
0.046395879 0.016913794 -0.0515
-0.00039480135 -0.018390428 0.0515
-0.030885192 -0.049853597 -0.0515
-0.0094414456 0.036874909 0.0515
0.029754633 0.0515 0.034733534
-0.041737847 -0.012712882 0.0515
-0.0515 0.04342917 0.03860537
0.0515 0.029854352 -0.011940943
0.047528807 0.0515 0.0055973162
0.030222667 0.015843285 0.0515
0.0515 -0.016434258 0.00070348068
-0.038190689 0.048943564 0.0515
-0.039128419 -0.040436916 0.0515
-0.0515 0.010137674 0.047683526
-0.0515 -0.029301763 0.014063218
0.036761489 -0.0027525087 -0.0515
0.026683662 0.0059251231 0.0515
0.0062417369 -0.0515 0.011875099
0.0515 -0.036733396 -0.0078401836
0.00022346374 0.04961155 -0.0515
-0.0092926556 0.0515 -0.011650526
0.0515 -0.04447582 -0.02872931
0.0515 -0.042721551 -0.02199831
0.035360359 -0.00093143462 0.0515
0.0049979347 0.013477582 -0.0515
-0.0515 -0.0112954 0.02356411
-0.045486502 -0.0515 -0.039737258
-0.0515 0.016559843 0.0026061425
0.025034295 0.027481843 0.0515
-0.0515 -0.042707399 0.012706008
-0.0515 0.0043091327 0.0014499582
-0.0012260153 -0.011410385 0.0515
0.033787757 -0.030642282 0.0515
-0.043795321 -0.0515 -0.014116068
-0.05042557 0.010087625 0.0515
-0.0515 0.045719001 -0.023118544
0.0515 0.05110443 0.00050942763
-0.044644568 0.0515 -0.040245347
0.027034424 0.0091999946 0.0515
-0.024908338 0.010027001 0.0515
0.0515 0.018043058 -0.012473525
-0.0062679774 -0.049405351 0.0515
-0.0515 0.051247723 -0.046407677
0.0515 -0.050320234 -0.03312324
-0.017440593 -0.0515 0.034712557
-0.0515 -0.051474713 0.0042720144
0.037092026 -0.0515 -0.015944611
-0.0515 -0.029678419 -0.023788968
-0.016338931 0.0515 0.045536436
-0.0515 -0.027480261 -0.0028036828
0.0515 -0.02962967 -0.040692274
-0.034885813 0.045727167 -0.0515
-0.047336269 0.047152109 -0.0515
-0.028152021 0.048696835 -0.0515
0.005645283 -0.0515 -0.026120447
-0.0515 -0.018483076 0.036701858
0.048289727 -0.0515 0.049222257
-0.039295737 -0.024882691 -0.0515
0.01660154 0.028014364 -0.0515
0.0043380908 0.0515 -0.012328156
-0.0515 0.027512381 0.016748345
-0.049101312 -0.0515 -0.020238204
-0.010543106 -0.02264764 -0.0515
0.015452647 0.024698732 0.0515
0.0360137 -0.02839016 -0.0515
-0.0515 0.0079292553 -0.0078081703
0.0515 -0.020035889 0.015955811
0.014434267 0.017555803 0.0515
0.0515 -0.041298348 0.021769967
0.0515 0.034153648 -0.008641379
-0.023071552 0.048844535 -0.0515
-0.0515 0.046475302 -0.020256283
-0.042980414 -0.049630832 0.0515
0.00067809713 0.0515 -0.01759373
-0.016657935 0.0515 0.011185987
-0.010215132 0.0515 -0.041892447
0.0515 0.034605499 0.0022910519
-0.0091826105 -0.021558709 -0.0515
-0.019657459 -0.0515 -0.011261308
0.0515 -0.042933393 -0.03001879
-0.0082783056 -0.0051051425 -0.0515
0.013327424 -0.0030482966 0.0515
0.0515 0.042229485 -0.025521964
0.01636395 -0.031399563 -0.0515
0.050424714 0.030765412 -0.0515
-0.0019310527 -0.038057208 -0.0515
0.011188902 -0.0515 0.029684354
-0.0515 -0.0060912995 -0.049235836
-0.03459011 0.0515 -0.033110071
0.033730432 0.0515 -0.019367533
0.0515 -0.032279778 0.040710025
0.0515 0.042400721 -0.023531305
0.0515 0.039365273 -0.049555998
-0.0515 -0.021955648 0.001369201
-0.019482926 -0.051012028 -0.0515
-0.0027420467 0.0515 -0.016062437
0.0096880309 -0.0515 -0.021509251
-0.025251407 -0.0034665146 0.0515
-0.011100522 0.0515 0.043558203
0.0515 -0.007895275 0.0072517912
-0.0515 -0.01570235 0.036418315
0.0515 -0.022010576 0.013692593
-0.037728474 -0.0515 -0.016392216
-0.018898852 -0.039047476 0.0515
0.043978892 0.02357401 -0.0515
-0.0515 -0.046657857 0.041387398
0.01377956 0.031485047 -0.0515
-0.0515 -0.051116005 0.0091950931
0.0515 -0.001014038 -0.019108497
0.026236326 -0.046393812 0.0515
-0.051186819 -0.025159057 -0.0515
0.0515 -0.022991147 -0.00080063945
0.024782488 0.016686575 0.0515
0.051076841 0.050150122 0.0515
0.028945349 0.0515 0.026917221
0.026349334 -0.0515 0.048606806
-0.0065066 0.0515 0.04610534
0.021053554 0.0515 0.048032384
-0.0515 0.023117414 -0.048246063
0.0016130981 -0.0515 -0.021515831
-0.037541181 -0.0020361664 0.0515
-0.00083168014 -0.0062190001 -0.0515
0.0515 -0.050503764 0.011795926
0.015146292 0.0515 0.0076518212
0.029565766 0.0515 -0.010975464
-0.0515 -0.019382285 0.0055467128
-0.033698194 0.0515 -0.03908027
0.049183402 -0.00032065119 0.0515
0.024910381 0.0515 0.01531125
0.039431937 -0.048016742 0.0515
-0.0515 -0.0033323127 -0.02608457
0.049098521 0.0515 0.031407595
-0.0515 0.048193462 0.032785933
0.020419896 0.017457582 0.0515
-0.0515 -0.046614215 0.0025719183
0.017302772 0.0050045531 0.0515
-0.047488756 0.039494488 0.0515
-0.046570264 0.0515 -0.047331434
-0.026003258 -0.028279617 -0.0515
0.032112777 -0.0515 -0.032004017
0.026802354 -0.0515 0.029093519
-0.0515 -0.036723576 0.015041213
0.04307152 -0.0515 0.015516623
0.01781317 0.048613291 -0.0515
-0.01015648 0.0515 -0.0074680159
0.04577858 0.013093611 0.0515
0.0515 0.040462401 0.034803059
0.033408303 -0.0515 -0.013635064
-0.0515 -0.011513633 0.017832991
-0.0515 -0.03722382 0.019663794
-0.027742187 0.0515 0.04740246
0.049728859 0.039539471 0.0515
0.016919417 0.023658833 -0.0515
-0.03427675 -0.028909372 0.0515
-0.0093334345 0.022827281 0.0515
0.0515 0.013514938 0.0013827817
0.0515 -0.0054128421 -0.030566569
0.014484584 -0.0515 -0.0085763969
0.0515 -0.023351645 0.037130065
0.016488187 -0.014217 -0.0515
-0.024528727 0.02084616 0.0515
-0.0515 0.021239953 0.04477391
-0.0515 -0.031410996 -0.0022406869
-0.048923142 -0.001977708 0.0515
-0.038980685 0.0515 -0.0096824262
-0.045634896 0.029919272 -0.0515
0.035275809 0.0515 -0.0085322056
0.0515 -0.039980978 0.023400722
-0.019510314 -0.03464913 0.0515
-0.048316106 0.0515 -0.026000734
-0.025699301 -0.039612334 -0.0515
-0.0515 -0.041867912 0.027846931
-0.0515 -0.013148728 0.046199333
0.001111645 0.0515 -0.028664473
-0.039559964 0.0515 -0.025264231
0.022569843 0.0515 -0.049290065
0.04038744 -0.0053746095 0.0515
-0.03831511 -0.016691267 0.0515
0.049286101 0.026733018 -0.0515
0.031435423 0.040010192 0.0515
-0.048779532 -0.048188649 -0.0515
-0.0515 -0.024264352 -0.019993555
0.0515 -0.0267755 0.040986184
0.033300959 0.0515 -0.018275602
-0.045532558 -0.0515 -0.038867291
-0.0013944611 0.034715522 -0.0515
0.0515 -0.017182387 0.031467553
-0.017946718 0.016008863 0.0515
-0.0515 -0.0065886634 0.027829332
-0.013310827 -0.0515 -0.0042171087
-0.038096894 -0.0515 0.049482848
0.0021721593 0.0024701869 0.0515
0.0515 -0.025224138 -0.029961277
0.012443743 -0.0515 -0.041494135
0.0515 -0.03285753 -0.02832849
-0.032793321 0.018630313 -0.0515
-0.0515 -0.048899464 -0.0071814526
0.044833854 0.018387258 -0.0515
0.031810917 0.0515 0.008795958
-0.017970247 -0.018316889 0.0515
0.0515 0.0421068 -0.038623042
-0.0062689879 -0.038352162 0.0515
-0.011327057 -0.036717247 -0.0515
0.024361407 0.039446402 -0.0515
0.0515 0.046723127 -0.033026449
-0.048846353 0.051246889 0.0515
-0.0515 -0.028716262 -0.027152944
0.0031206287 -0.050540179 0.0515
0.017459888 0.0515 0.048252117
-0.0515 -0.042677078 -0.047098354
-0.049435645 -0.041613769 -0.0515
-0.0515 0.018730247 -0.036596201
-0.050712306 0.0515 0.0028140717
-0.0515 0.02155377 -0.021402322
-0.041165825 -0.0012671478 -0.0515
-0.0013787502 0.0049480242 -0.0515
-0.011465069 0.030627958 -0.0515
0.031166242 -0.0515 -0.0081912521
0.028968114 0.0515 -0.039740954
-0.0016506665 0.0515 0.0072136051
0.022386042 0.0515 0.01863512
0.049853969 -0.0515 -0.051011715
-0.0515 -0.026729887 -0.030220697
0.011911823 -0.016833352 0.0515
0.0515 0.0065602581 -0.010597408
-0.0515 -0.051132664 0.050600346
-0.0515 0.0010373278 0.0065381564
-0.0063307439 -0.0515 0.032794535
0.0515 0.047507763 -0.011033795
-0.0515 -0.025289431 -0.025696332
0.033840079 -0.0515 -0.018468378
-0.0072258096 0.0515 0.017553762
0.029235899 0.051034905 0.0515
0.0515 -0.0026131889 -0.02830692
0.0515 -0.013108488 0.039691012
-0.030191857 -0.0088563692 0.0515
-0.0515 0.014315292 -0.031334516
0.0332551 -0.0515 0.0096258307
-0.0039099795 0.0515 -0.0043732855
0.0515 -0.045963045 0.043980695
-0.030504746 0.0515 0.046276413
0.021414077 -0.025424577 0.0515
-0.04153005 -0.0515 0.011230035
-0.050068367 -0.049061388 -0.0515
-0.020161174 0.0515 -0.0042221998
-0.04919754 -0.029656736 0.0515
0.0515 0.0022442008 -0.0031755869
-0.0515 -0.047964592 0.0022641472
0.0515 0.037458718 -0.0062330551
-0.045542225 0.0515 0.035786215
-0.041149907 0.0515 0.0071919817
-0.048048649 -0.0013771205 0.0515
0.033654563 0.021358533 -0.0515
-0.020077644 0.037035991 -0.0515
-0.0089906389 -0.05150266 -0.04520423
0.0515 -0.042391703 -0.014936158
0.036474295 -0.04558463 0.0515
-0.045132708 -0.010442236 -0.0515
0.028441301 -0.017217619 -0.0515
-0.0515 0.035470266 0.032723557
0.04678541 0.0515 0.011047689
-0.012456457 0.0515 -0.050045919
-0.032075781 0.047441304 0.0515
-0.010290895 -0.0515 -0.00055446359
0.0515 0.010717222 0.046182711
0.039939824 -0.020903541 0.0515
-0.0515 -0.037890133 0.046840392
0.0515 -0.0052709593 -0.018178118
-0.0515 -0.050309077 0.029682364
-0.0515 -0.01098916 -0.026798764
0.0515 -0.028509075 -0.034973364
-0.0029223773 0.02667479 -0.0515
0.0051812897 -0.0515 0.042459868
-0.021748062 -0.006845199 0.0515
0.030105492 -0.0515 0.00029992525
-0.018884415 0.024882156 0.0515
-0.050995003 0.034532107 -0.0515
0.0515 0.027724696 0.0046321671
-0.020818783 0.0515 0.028689684
0.0515 -0.032862604 -0.03208869
-0.021608233 -0.0515 -0.0023601498
0.0086799152 0.011893741 -0.0515
0.032093011 -0.0515 -0.046055011
0.0515 -0.030700637 0.041179948
0.021062035 -0.0515 0.019404737
-0.0515 0.0087292008 -0.026690034
-0.0515 0.017451141 -0.045847539
-0.0515 0.019106843 0.04506176
0.018284351 0.0515 0.03501296
-0.0079868175 0.044239417 -0.0515
0.016511301 -0.031407081 -0.0515
-0.0515 0.041700713 0.024172919
-0.039490256 0.0078742169 0.0515
-0.0113966 -0.0515 -0.042177793
-0.0515 0.03244197 -0.0057380544
0.014821307 0.043851953 -0.0515
0.0515 0.050997332 0.020130541
-0.0515 -0.047593616 -0.019791199
0.0515 0.031422846 -0.033799704
0.023160052 -0.0515 -0.043880332
0.032006234 0.0515 -0.009455313
0.036853254 0.0515 -0.031830225
-0.0067121903 -0.0515 0.044651002
-0.024539102 0.0067627914 0.0515
0.00015420553 0.017318923 0.0515
0.0515 -0.030178078 0.023280194
0.0515 -0.035667043 0.015895816
0.023125019 -0.0515 0.034201413
0.0515 -0.050831381 -0.0096885785
-0.0515 0.039638318 0.01002331
-0.026098825 -0.033612788 -0.0515
0.0515 -0.049537927 -0.043096565
-0.0515 0.014623269 -0.02298798
0.0515 0.043006413 0.046267044
0.0515 -0.015143623 -0.00052697025
0.049609587 -0.039781675 0.0515
-0.0091072237 -0.027255505 0.0515
-0.0515 0.049671043 -0.0461112
0.037744947 0.0515 -0.046479754
-0.039054863 -0.0515 0.047850624
0.0515 -0.0017064222 -0.049257565
-0.0515 -0.017229902 -0.0087902257
-0.026489785 -0.0020351836 -0.0515
0.011893919 -0.009572708 0.0515
-0.0019211017 -0.031279173 -0.0515
0.0515 -0.043766282 0.0098507171
0.030215871 0.0017851255 0.0515
0.023634827 0.01458806 0.0515
0.0515 -0.031248283 0.032355089
0.0515 0.0040893904 0.029310513
0.0515 -0.03850957 -0.045545671
-0.0515 -0.020499207 0.010078769
0.0003156726 0.010679109 -0.0515
0.0053835493 -0.0515 -0.0017038345
-0.0096178837 0.025575228 0.0515
0.024381172 0.019021474 0.0515
-0.0515 -0.030620763 -0.012742246
-0.034493499 -0.0515 -0.049550716
0.0515 0.02899844 -0.013003296
0.014862298 0.022182152 0.0515
-0.023451097 -0.0025133239 -0.0515
0.0515 0.036828145 0.011323901
-0.039083835 -0.0515 -0.046232626
-0.0515 0.019023623 -0.040153977
0.024632301 -0.0515 0.051478583
0.016131276 0.0515 0.027676422
0.0013378955 -0.048349194 -0.0515
0.050179888 -0.030884959 -0.0515
0.0515 -0.03327686 0.029704446
-0.020853696 0.0515 -0.0059804544
-0.023512939 -0.039248146 0.0515
-0.0038231933 0.0515 0.002612629
-0.0515 0.042768322 0.0080000386
-0.0515 -0.046506207 -0.042888805
-0.013391003 0.0515 -0.040382713
-0.014883223 -0.0060841003 0.0515
0.0515 0.047419455 0.05035121
-0.0515 0.044424336 -0.031178487
-0.0515 0.046322107 -0.012982827
0.0515 -0.032515939 -0.051163245
-0.0515 0.022181077 -0.038602598
-0.03202663 -0.0515 -0.050392371
0.025622262 -0.043927297 0.0515
-0.025448285 -0.045707017 -0.0515
9.9568904e-05 0.0095452527 -0.0515
0.023438828 0.0515 -0.0038926108
0.017651003 0.0515 -0.0084083816
0.015998308 0.0515 -0.016687026
0.036098726 -0.0515 -0.024093438
-0.042902876 0.0515 0.010406567
-0.011411877 -0.0515 -0.044978619
0.048468739 -0.03010726 -0.0515
0.042271033 -0.0515 -0.024255157
0.0515 -0.012941487 -0.0010204202
0.0515 0.044776194 -0.044796396
0.0515 0.01307154 -0.047317974
-0.0038045419 -0.022347055 -0.0515
0.042511441 0.047014404 0.0515
-0.028708344 0.030269423 0.0515
0.0003860883 -0.0515 0.031018509
-0.0515 -0.0092863077 0.048226256
-0.043260671 -0.0515 -0.040024135
-0.0043564755 -0.0515 -0.01703041
0.039845176 0.0515 0.038088538
-0.038315773 0.0515 0.027277132
-0.025311837 0.0515 -0.032410808
-0.027610783 -0.0515 0.019479996
-0.01791735 -0.0515 0.0017021226
-0.034994889 -0.022141609 -0.0515
-0.021278957 0.0515 -0.025209161
-0.040079869 0.0515 0.023535378
-0.0515 -0.03187583 0.0431315
-0.028520137 0.021230701 0.0515
0.023581622 -0.013914102 0.0515
-0.03536443 0.0515 0.019312469
-0.050927453 -0.0515 -0.011776474
-0.047109999 -0.02350617 0.0515
0.0515 0.037513144 0.04317636
-0.010740217 -0.0515 -0.036483217
0.034356017 -0.0014534582 -0.0515
-0.0515 0.012327304 -0.036742136
0.0515 0.031526256 -0.029851915
0.014340603 0.046062805 -0.0515
0.04948958 0.04740018 -0.0515
-0.027612377 0.0515 -0.044170804
0.041558001 0.0515 -0.036245555
-0.0515 -0.045557082 0.022213286
0.0515 -0.036427196 -0.010496526
0.0515 0.023393167 0.013691184
-0.0515 -0.017333265 -0.048603185
-0.0515 -0.024870461 0.032315433
-0.017041001 -0.0515 -0.022324961
0.046541344 0.046185285 -0.0515
0.047774632 -0.043456651 0.0515
-0.0515 0.0089207832 0.033829343
-0.050909452 -0.039720353 0.0515
0.0085315434 0.019737784 0.0515
-0.041888639 0.010589832 -0.0515
0.019855794 -0.031560037 0.0515
-0.040676389 -0.012002999 -0.0515
-0.0515 0.021094883 -0.012738953
0.043797959 0.0515 0.0031675245
-0.0515 0.040145893 -0.046698183
-0.035251189 -0.0515 0.03437525
-0.028902901 0.022811418 -0.0515
0.0515 -0.050467592 -0.0030752458
0.0089165708 0.01869257 -0.0515
-0.0054836688 0.0515 0.034976553
0.0080455383 -0.012379954 -0.0515
-0.0515 0.014586774 -0.0071033365
-0.016698496 0.035233296 -0.0515
0.034984954 0.022597726 -0.0515
-0.02101576 0.0515 0.032857105
0.0166221 -0.019184407 -0.0515
-0.047270786 0.019295238 0.0515
-0.03363036 0.010500151 0.0515
0.022872508 -0.0515 0.020545239
0.0515 0.0247897 -0.010648896
-0.0020274459 -0.04546725 0.0515
0.029388398 -0.0032767199 -0.0515
-0.0515 0.03924676 -0.034681853
-0.0515 0.0207435 0.049952287
-0.034631327 0.0515 0.031991925
0.0515 0.007704502 -0.034314644
-0.044542097 0.024381911 0.0515
-0.0515 0.046438295 -0.0046535409
-0.0515 -0.00064479979 0.017491421
0.0515 -0.047667895 -0.04918161
-0.0515 0.042844024 -0.0059365034
-0.0515 -0.020124163 0.050110672
-0.011748347 -0.02512154 0.0515
0.0515 -0.019076318 -0.012943293
-0.005264503 0.0515 -0.017376339
-0.02302525 0.0086864857 -0.0515
-0.0021994761 0.0515 0.037458617
-0.019935759 0.0515 0.0054569659
0.033025436 0.0515 -0.048300095
-0.010899888 0.0515 -0.041044772
0.025234539 0.051142745 -0.0515
-0.036031265 0.0515 -0.013240566
-0.0515 -0.015642498 0.032048594
0.046500746 -0.0515 -0.032354314
-0.012315248 -0.0021787973 0.0515
0.0515 0.037118822 -0.013475711
0.0515 -0.030794578 -0.042893551
0.010628413 0.012945847 -0.0515
-0.041387562 -0.0077980398 -0.0515
-0.044872966 0.0515 0.038793009
-0.0056187306 0.021934999 0.0515
0.007910708 0.0515 0.034154195
0.050438147 0.048311148 -0.0515
0.017898984 0.042520374 -0.0515
0.0515 -0.033760495 0.0084065758
0.023530815 -0.0515 -0.025985498
-0.051492054 -0.051507913 0.010291195
-0.047556303 0.025981301 -0.0515
-0.041076023 0.0515 0.024089443
-0.020740746 0.0515 0.001426161
-0.0515 -0.0091813719 -0.051273704
0.035151348 0.0515 0.041056238
5.4912838e-05 0.0515 0.036677472
0.025855053 0.016455088 0.0515
0.01694642 -0.014878791 0.0515
-0.034201007 -0.0515 -0.047258191
0.0024345189 -0.0515 -0.046676211
-0.0515 -0.023868898 0.037011247
-0.0515 0.024791921 0.017819513
0.0515 0.047642317 0.002210526
-0.0047671697 -0.0515 0.047387306
0.0073979422 0.041057102 0.0515
-0.010614591 -0.027241517 0.0515
-0.036288604 0.0515 -0.018333014
0.0515 0.0058742841 0.034490429
0.050910234 0.043915018 0.0515
0.048354425 -0.035023499 0.0515
0.0515 -0.015292119 -0.034288328
0.048007067 0.031500947 0.0515
-0.04941684 0.030910371 0.0515
0.040529419 -0.0515 0.023426279
0.0515 0.022370519 0.0056188847
0.024563998 -0.0515 0.043008976
0.004193644 -0.042554043 0.0515
0.0515 -0.050350014 -0.025913402
0.012873995 0.044849642 -0.0515
-0.024053877 0.0515 -0.043965235
-0.0515 0.045207806 0.031622048
-0.018293248 -0.0074158204 -0.0515
-0.034406289 0.035441082 0.0515
0.041070577 0.014357907 0.0515
0.039310738 -0.029829198 0.0515
-0.0515 -0.04983237 0.025411213
0.0515 0.016724305 0.04838578
0.032987632 0.0048159878 -0.0515
-0.04498918 -0.03640645 0.0515
-0.0515 0.005245531 0.031065511
-0.016663542 0.0515 -0.0086360285
-0.0515 -0.031644523 0.049495772
-0.028262176 -0.013930729 0.0515
-0.0515 -0.044227235 -0.037659235
-0.023121987 0.0515 0.0346203
0.049882062 -0.0515 0.049562532
0.013059721 -0.0515 0.0099007618
0.010540199 0.042472091 -0.0515
0.022886785 0.0515 -0.030116934
0.016746569 0.0515 0.033163305
-0.050082028 -0.048078913 0.0515
0.0515 -0.0066105863 0.050347961
0.041678932 0.0515 -0.034376658
-0.0011152423 -0.0515 0.016403912
0.0515 -0.0072795181 0.0064275106
0.0515 -0.04339841 0.036241792
0.0072400849 0.0515 0.015428582
-0.0515 0.010701047 -0.006382436
-0.043333862 -0.0515 -0.032226183
0.0076145334 0.0515 -0.021851227
-0.027886067 -0.046398155 0.0515
0.0515 -0.038256608 -0.033524077
0.034470219 0.043735154 -0.0515
-0.0515 -0.012642613 -0.043617763
0.044842701 -0.0515 0.023366377
-0.025413079 0.041633118 0.0515
0.037916724 -0.0035295268 0.0515
0.0024893798 0.0515 0.023972698
0.0515 0.044968296 0.033076499
-0.0515 -0.0093576126 0.051225401
0.013693667 0.035580926 0.0515
-0.019696826 0.045561343 -0.0515
0.0048420983 0.016673304 -0.0515
0.012627742 0.0515 -0.011798382
0.0515 -0.008825914 0.045888666
-0.039102983 0.0515 0.0222947
-0.020609669 0.0090808151 -0.0515
-0.023411842 -0.0515 0.022843083
0.041783657 -0.0515 0.010162032
0.019075248 -0.01758497 -0.0515
-0.014689774 0.0515 0.04236133
-0.033823643 -0.038148653 0.0515
-0.0016519281 0.0515 -0.017887656
0.0039032982 -0.0078331484 -0.0515
0.0515 -0.036681004 0.0085222488
0.043279268 -0.00075914874 -0.0515
-0.032268561 0.044178098 0.0515
-0.019468103 -0.041346978 0.0515
-0.050300267 -0.0515 -0.051010817
0.031473178 0.0515 -0.045988012
0.016884139 -0.0515 -0.018519007
0.014671626 -0.035202216 0.0515
-0.032161616 0.0515 0.0067592952
0.014167806 -0.010299669 0.0515
0.037407938 -0.0187573 -0.0515
-0.019285621 -0.0515 0.017087637
0.034260605 -0.0515 -0.0073180823
0.00070588931 0.0515 0.039779756
-0.013941411 0.0515 0.036643419
-0.0072179451 -0.0515 -0.047040615
0.040492449 0.0515 -0.025600752
-0.0515 -0.0071434048 0.026979625
0.0515 0.035592731 0.0093555655
-0.015158837 -0.01645365 0.0515
-0.018829275 -0.0515 -0.021696106
0.0040391199 -0.027866952 -0.0515
-0.03975014 -0.0515 0.021878755
0.038843714 0.018147763 -0.0515
-0.028171426 -0.0515 0.050728034
0.0515 -0.0019004301 -0.04206552
-0.0515 -0.026134243 -0.050444614
-0.0515 -0.028741818 0.043980833
-0.0515 -0.029778771 -0.026714496
0.0515 0.043819424 0.0478938
0.012159045 0.0515 0.026321394
0.0515 -0.00026723347 -0.036377944
-0.034964468 0.031865783 -0.0515
-0.0515 -0.021950221 0.032366756
-0.025789848 0.0048733354 0.0515
-0.0515 -0.033131819 -0.048741754
0.010606408 -0.0045285863 0.0515
0.017720653 0.048587751 -0.0515
-0.028894218 -0.0515 -0.016513858
0.0013442036 0.017194714 0.0515
-0.038270436 -0.02533849 0.0515
0.0515 -0.035226207 -0.0052240659
-0.0515 0.0059997123 -0.048069771
-0.0515 0.018729012 -0.028007286
-0.042070962 0.046256579 0.0515
0.0515 -0.032793202 -0.02024979
-0.03631606 0.038200945 0.0515
0.0515 -0.016083313 0.026492983
0.0515 0.010134874 0.022688948
-0.023809668 -0.0515 -0.017219303
-0.045555275 -0.0515 0.0308515
-0.035149235 -0.04670446 0.0515
0.045333259 -0.0515 -0.019132182
0.035834271 0.010295516 0.0515
-0.036781564 0.032843102 0.0515
-0.038418904 0.024249807 -0.0515
-0.00063069689 0.0515 0.031153375
-0.026313178 0.0515 -0.043413538
-0.0515 0.038790312 0.027462654
0.030440176 -0.043429457 0.0515
-0.0515 -0.0025038824 -0.04574459
0.050616816 0.0515 -0.043688722
0.0515 -0.032305717 0.035978395
-0.0515 -0.023712268 -0.035386994
0.0515 0.0009229696 0.042638246
0.0515 0.028208274 0.014386123
0.0515 -0.040092867 0.010449017
0.0515 -0.0050284369 -0.0059403949
0.0515 -0.0017118038 -0.021058036
0.023830501 -0.0515 0.0063176872
0.00054640614 -0.022122869 -0.0515
0.01478676 -0.0515 0.026608393
0.0515 0.012999475 -0.03611571
0.0021612609 0.0515 -0.017426178
0.017834019 0.0095748808 0.0515
0.018065749 -0.023470061 0.0515
-0.0515 -0.023794293 0.049743138
0.026342293 -0.0515 -0.020563575
-0.035822652 0.0515 0.037692841
0.0060091978 0.0056182258 -0.0515
-0.047453929 -0.0515 -0.022974147
-0.0515 0.025864957 -0.023309013
0.042337254 0.016276738 0.0515
-0.0515 -0.040769342 0.0054718247
0.0013310404 0.043063354 -0.0515
-0.0075447559 -0.0515 0.023498045
-0.046542633 0.0013057652 0.0515
0.0515 -0.027840815 0.048433788
-0.029530624 -0.0065913065 0.0515
-0.042392947 -0.0515 -0.0087996721
-0.050938353 -0.0515 -0.0032670922
-0.01391645 -0.044953324 -0.0515
0.028061442 -0.0515 0.036950413
0.019282369 -0.043672059 0.0515
-0.0515 0.023157297 0.046426278
-0.019367017 -0.0515 -0.050399605
0.0515 -0.031783558 0.015527621
0.044427935 -0.039436605 0.0515
0.0515 0.0017840364 -0.034544989
0.039345596 0.032838412 -0.0515
-0.0515 0.024200208 -0.0071039768
0.0025591494 -0.0515 0.020631498
0.027161948 0.0515 0.031506423
-0.00027296512 0.0043366179 0.0515
-0.010768453 0.0515 -0.0072590453
-0.037845362 -0.0515 0.0092459321
-0.019120136 -0.0515 0.033393294
0.049033582 0.03658561 -0.0515
0.0515 0.015784215 0.0068859155
-0.0515 -0.039176524 -0.049850531
-0.0042698607 -0.033038404 0.0515
0.042932518 0.030163152 0.0515
0.0084367655 -0.0035964153 0.0515
-0.024221081 0.0515 -0.013424878
-0.0515 -0.010353167 -0.050633609
0.014774922 0.023227666 -0.0515
-0.040070597 0.0515 -0.030891215
0.0515 0.042977881 -0.04790321
-0.0515 0.02115187 0.016575219
0.0057930602 0.045785256 0.0515
0.028293537 -0.027863119 -0.0515
0.0063775931 -0.033154063 0.0515
0.0079239011 0.0515 -0.016249957
-0.012617372 -0.0515 -0.013005773
0.041357405 -0.0515 0.047991075
0.0515 0.032921165 -0.0084339753
-0.05037912 0.0515 -0.015084738
-0.022304183 0.0515 -0.03157372
-0.010315819 0.039941274 0.0515
-0.0515 -0.010163971 0.037828621
0.0515 -0.045253638 -0.042321417
-0.0515 0.020583799 -0.019384086
-0.0515 -0.033183016 -0.041776497
-0.0078579523 0.014773276 -0.0515
0.0515 -0.021444675 -0.023592252
0.018683134 -0.031955115 -0.0515
-0.043313809 -0.015057875 0.0515
-0.0047635767 0.027582088 0.0515
0.030811295 -0.0515 0.030263411
0.032012064 -0.049343754 -0.0515
0.0050027487 -0.0515 -0.03259521
0.020947957 -0.035589762 0.0515
-0.0515 -0.026617359 -0.040952042
-0.0515 0.029138627 0.030239565
-0.021400871 0.0047329208 -0.0515
0.027329803 -0.0515 -0.0301775
0.0515 -0.045442875 0.034102086
0.0515 0.047990065 -0.026880125
0.0515 -0.010032813 -0.014458208
-0.024559541 -0.0515 0.022055663
0.00082221738 0.049072146 0.0515
0.029176664 -0.01115226 0.0515
0.03066599 -0.014238381 -0.0515
0.036523227 0.0078623937 0.0515
2.7097643e-05 0.0515 -0.006770378
0.026002215 0.018642778 0.0515
0.048731327 -0.024119619 0.0515
0.00679455 -0.0515 0.017077627
0.0515 0.022147035 -0.045892593
-0.01208998 -0.0515 -0.020446163
-0.0515 0.004412225 -0.048653834
0.0515 -0.038760953 -0.0097826123
0.02423881 0.0515 0.040096089
0.0515 0.031592317 -0.0081955288
0.0515 -0.035538003 -0.027965307
-0.029596986 0.04717084 0.0515
0.0515 0.026427336 -0.039361443
0.0515 -0.034320839 -0.040442467
-0.0025094275 -0.036618624 0.0515
0.011395231 0.01047466 0.0515
0.0515 0.014190152 -0.0002843563
0.0515 -0.013178051 0.032907527
-0.0110147 -0.0515 0.035263985
-0.023908289 -0.0515 0.0039594057
0.029517872 0.0515 0.04115558
-0.0515 -0.036555536 0.01469785
0.050031636 -0.0515 -0.018598542
-0.0515 0.051103774 0.015517508
-0.030272743 -0.014236596 0.0515
-0.02889858 -0.0515 -0.007907615
-0.035637915 0.047724999 -0.0515
0.023510547 0.0515 -0.010440306
-0.00622886 -0.0515 0.0064863064
-0.0515 0.018742446 0.012078112
0.0515 -0.034993727 -0.011793382
0.026677078 -0.0515 0.032177951
-0.0515 -0.04899985 0.03573256
0.018430881 -0.0515 0.031966116
-0.032849494 0.011552871 -0.0515
-0.0515 0.036386475 -0.050585523
-0.0043992721 -0.0515 0.049335491
-0.00030509639 0.027132487 0.0515
0.0515 -0.041016068 -0.040815454
-0.011372944 -0.016848931 0.0515
-0.0515 -0.031136917 -0.044712473
-0.011532811 0.0515 -0.017341044
-0.047675297 -0.0515 0.01411288
0.02756723 0.0085873855 0.0515
-0.026649293 0.0515 0.0077756569
-0.018316193 0.0515 -0.021556314
-0.014936293 -0.0515 -0.026014637
-0.011949784 0.031804055 -0.0515
-0.047039233 0.036015987 -0.0515
-0.0096135521 -0.0515 0.021131702
-0.042748187 -0.0515 0.048639398
-0.0515 0.013464724 0.028759591
0.0515 0.032259855 0.043361314
-0.035632547 -0.029183287 -0.0515
-0.028141679 0.020560998 0.0515
0.034259785 -0.0515 0.036137458
-0.041065436 0.0018527471 -0.0515
0.0037073221 0.0515 0.039905492
0.016335357 -0.0515 0.00085981959
0.0515 0.016334496 0.01970588
-0.00088856491 0.0515 0.044404835
-0.017698308 -0.0515 -0.02079647
0.0515 0.023264777 0.045045335
0.012730685 -0.0515 -0.025847217
0.037558317 -0.028266134 0.0515
0.034240186 -0.0515 -0.050959736
0.016761782 -0.0515 0.0080417823
0.04057689 0.0515 -0.0082025379
-0.0037032005 -0.0515 0.039247442
0.0515 -0.036592778 -0.025844233
0.014032268 0.016710458 -0.0515
-0.01259979 0.0515 -0.041017577
0.021662012 0.0515 0.035249252
0.018391298 0.014285826 0.0515
0.04833097 -0.009690173 -0.0515
0.045388702 -0.036140718 -0.0515
0.0515 0.048159931 -0.027887767
-0.0088646775 0.000532965 -0.0515
0.040094402 0.0515 -0.018934056
0.0029478585 0.0515 -0.0032002565
0.037622504 0.014095002 -0.0515
0.035333276 0.0515 -0.041618701
0.0515 0.021622462 -0.048696458
0.0515 -0.037419368 0.034718424
0.014019298 -0.040583942 -0.0515
0.021708386 -0.0515 -0.017147874
0.044089638 0.0515 -0.042886872
-0.0515 -0.028034795 0.025911033
-0.0515 -0.045587424 0.025378976
-0.010054769 0.0515 0.039581258
0.0515 -0.00122598 -0.028104821
-0.0515 -0.020099001 -0.02822745
-0.041065659 -0.028133955 0.0515
-0.028686255 -0.0515 -0.028114131
0.0515 0.016827773 -0.008760009
-0.0515 -0.017211782 -0.0056682359
-0.021928884 -0.0515 -0.026286256
0.0099752899 -0.0515 0.032708518
-0.045629822 -0.010442635 0.0515
0.0515 0.050674994 0.0024105601
0.0066398978 0.034122854 -0.0515
0.045780692 0.0515 -0.023516316
-0.045417257 -0.0515 0.010069196
-0.0515 -0.025445208 0.012843253
-0.038659681 -0.0515 -0.03865977
0.031442177 -0.0515 0.016233824
-0.0515 0.0074834637 0.036964219
-0.0042980257 -0.047744807 -0.0515
-0.0515 -0.022988295 -0.0002949599
0.0515 -0.035771102 -0.013573792
-0.014336398 0.0515 -0.05083276
-0.0088451197 0.014214714 -0.0515
0.034672823 0.025658669 -0.0515
-0.036311194 0.0515 -0.031442765
0.0515 0.050383683 0.0053742439
-0.0515 0.028909339 0.046941508
0.0515 0.0445951 -0.031755604
0.018547598 -0.0515 -0.022317981
0.03746555 -0.039732423 0.0515
-0.042099636 -0.03104765 0.0515
0.010452541 0.039194889 0.0515
0.033162784 -0.0515 -0.021904031
0.037774805 0.037730198 -0.0515
0.0515 -0.032507557 0.025058461
-0.02595163 -0.0515 0.030819979
0.0515 -0.011609682 -0.020976521
0.018323004 -0.035733197 -0.0515
0.0515 0.039571494 -0.015204372
-0.043357719 -0.0041744127 0.0515
-0.0515 0.014466129 0.049658012
0.0515 -0.036431875 0.012964409
0.020231605 0.0515 0.024367787
0.0515 0.030049684 0.0061583603
-0.0515 0.027405085 0.028358964
0.02819041 -0.046643328 0.0515
-0.006869677 0.0515 -0.01502171
0.0515 0.021866048 0.0183807
0.0515 0.0062342044 -0.0089360122
-0.028014863 0.046176974 0.0515
0.0515 0.042286109 0.0047562136
0.0515 0.041971795 0.025750387
0.018255431 0.01015651 0.0515
-0.0515 0.0064848321 -0.011022133
0.0515 0.0075618229 -0.046848711
0.021943148 -0.0515 -0.04900815
0.0079461122 0.0515 -0.048465226
0.050206229 0.00053767482 0.0515
-0.0040691243 -0.0515 -0.02618761
0.0515 0.022196056 -0.021572512
0.0515 0.026009735 -0.042481624
-0.014699982 0.013584062 -0.0515
-0.0515 -0.043066647 0.014644726
0.037468705 -0.010117151 -0.0515
-0.0515 -0.043700255 0.033738781
-0.0090723271 0.036485314 0.0515
0.0515 -0.029255865 0.049768068
-0.0515 -0.023779161 -0.02966537
0.0515 0.033305511 0.01526323
-0.036666583 0.048578359 -0.0515
0.019899184 0.0023670213 0.0515
0.0515 0.051101636 0.010488209
0.050596435 -0.0515 0.025828123
0.016233394 0.042197086 -0.0515
0.026666997 0.0515 -0.007424654
-0.014770958 -0.025701329 -0.0515
-0.010724815 -0.0515 0.019572474
-0.04560966 -0.048062682 0.0515
-0.016865928 -0.0515 0.019529499
0.0515 -0.01410391 -0.014477288
-0.027349291 -0.0515 0.045482952
-0.029368553 0.0515 0.03284033
0.036580149 0.0515 0.034136854
0.0515 0.038259413 0.046049014
0.0515 -0.042678092 0.0068978835
-0.039328083 0.028221747 0.0515
-0.0051029483 -0.03811634 -0.0515
-0.0515 -0.029235912 -0.047899127
-0.0515 0.012528057 -0.038434859
0.0515 0.019028945 0.0046207816
-0.0515 0.041770976 0.0091613708
0.0515 -0.046126019 0.0040043816
0.034403488 0.0515 -0.001796451
0.007054023 -0.0038160104 -0.0515
-0.0515 -0.039379261 -0.02303778
0.018541975 -0.012707058 -0.0515
0.011615435 0.0515 -0.043302488
0.011705078 0.0515 -0.0017361357
0.025383523 0.0515 -0.043518774
0.0515 0.024715997 0.024205897
-0.020398967 0.0515 0.0037836353
0.0515 0.02527849 0.010618255
0.0515 -0.01849818 -0.033035696
0.0515 -0.045780927 0.047945905
-0.0515 -0.034620896 -0.035909452
-0.020545701 0.0515 0.0098036407
-0.042580668 -0.045624766 -0.0515
0.014623141 -0.0515 -0.015276675
-0.0515 0.03463221 -0.022945138
-0.029453682 0.014073323 -0.0515
0.043708697 -0.0515 0.029906588
-0.0084780846 -0.0515 0.00045782331
-0.050074868 0.0010425774 -0.0515
0.0011628919 0.00053577079 -0.0515
-0.0060547534 0.0072995173 -0.0515
0.017989252 0.050068334 -0.0515
-0.0515 -0.030958205 0.0017072521
0.013273112 0.0515 0.0035604122
0.0515 -0.045231599 -0.022999238
-0.023541089 -0.024236156 0.0515
-0.020551315 -0.034187295 0.0515
-0.046342555 0.013562283 0.0515
0.037441675 0.0515 -0.014509742
0.010931413 -0.039262611 0.0515
0.0515 0.036609072 0.00083491806
0.0515 -0.03058219 -0.012396907
0.0515 -0.0034702483 0.023485657
0.00084149209 -0.0515 0.02324626
-0.0515 -0.048873 0.02995161
-0.020913225 -0.015583714 -0.0515
-0.0515 0.03857445 -0.046275999
-0.040051121 0.037378091 0.0515
-0.0515 -0.017395074 0.0036563675
0.011839174 0.0515 0.018139143
0.01835232 0.033598986 -0.0515
-0.0515 0.0060011917 0.00507577
-0.0019277858 0.0048238807 -0.0515
-0.033599686 -0.0515 -0.04686413
0.049861666 -0.0515 -0.043458924
0.0515 -0.026056144 0.007959743
0.042461168 0.029517354 -0.0515
-0.050953988 0.037046004 0.0515
0.041475013 -0.0515 -0.012500257
-0.02893717 0.043531116 -0.0515
-0.04229958 -0.031544819 -0.0515
-0.028693078 -0.0515 0.011620636
0.0515 0.031729199 -0.049914733
0.046985984 0.0515 -0.038826421
-0.0515 0.038378008 -0.027578047
-0.0515 0.0037485571 0.024883494
0.042076819 -0.0515 -0.038060699
0.0515 -0.02937464 -0.039826445
0.0515 -0.042323116 -0.038980816
-0.034910582 0.013951994 0.0515
0.015827831 0.017904954 -0.0515
0.017709389 -0.0515 -0.025627231
-0.032279149 0.050982133 -0.0515
-0.020441506 0.040272463 0.0515
-0.0059807594 0.0515 0.045289893
0.023645768 -0.0515 -0.014639567
-0.027654853 0.0515 0.025906526
0.022282619 0.023997117 0.0515
0.041820239 0.011780609 -0.0515
-0.0515 0.044196419 0.01645113
0.0515 0.0068414067 -0.026661927
0.0515 -0.044093698 -0.019516177
-0.0515 -0.012605296 -0.02300234
-0.0515 0.031503331 -0.041847918
-0.047863901 -0.046040721 -0.0515
-0.0515 0.037409242 -0.031205203
-0.012317347 -0.03130066 0.0515
-0.0515 0.041698419 0.017624149
0.0515 0.028939322 -0.028650733
0.0515 0.02965102 -0.036220718
0.034782693 0.033234123 0.0515
0.0515 -0.0024171958 0.045540314
-0.048001371 0.027868776 -0.0515
0.016796203 0.027717976 -0.0515
0.047398407 0.0515 -0.039606653
0.0515 0.042724963 -0.0469281
-0.0515 -0.034268912 -0.042033259
-0.04645798 -0.025075721 -0.0515
0.04584866 -0.033584598 0.0515
-0.0515 -0.033378102 0.021036707
-0.033122946 0.0515 -0.028226571
0.0515 0.037504461 0.030488251
0.0515 -0.048701435 -0.017982375
-0.045633234 0.043764912 -0.0515
-0.034048069 0.021122867 -0.0515
-0.013479124 0.021455742 0.0515
-0.0097811241 0.0515 -0.032486614
0.02155361 -0.0515 0.0094141755
0.04107536 0.0515 0.042153303
0.021203885 -0.0515 -0.044536263
-0.01529603 -0.027065337 0.0515
0.028747745 -0.050345983 0.0515
-0.0080951406 -0.048470262 0.0515
0.0515 -0.041273128 0.043415189
0.0515 -0.0057580997 -0.0064501888
0.0515 0.036170252 -0.039745469
0.046208713 -0.026106397 -0.0515
-0.03726225 0.0515 -0.047968827
0.027159853 0.027417868 0.0515
0.009468385 -0.003453407 -0.0515
0.025511345 0.0515 -0.036618281
0.0515 -0.0037606731 -0.0066280137
-0.012159848 0.0515 0.0083621219
-0.024891438 0.035845798 0.0515
-0.0515 0.0206983 -0.028771633
0.0059115761 0.017742839 -0.0515
0.0515 0.017757291 -0.038027834
0.043067768 0.0515 -0.040653326
0.035198785 0.00045723232 -0.0515
0.036598332 -0.0515 0.0048081805
0.0515 0.046599459 -0.023200646
-0.0515 -0.01423193 0.041538876
0.0066084107 0.050135784 0.0515
-0.0515 -0.049618378 0.0012992586
0.0515 -0.033704072 -0.039428018
-0.049535818 0.044410709 0.0515
-0.0515 -0.015870759 -0.036836993
0.024132166 -0.046793565 -0.0515
0.0515 0.046120808 0.01201866
-0.0515 0.026633861 0.024693538
0.0515 0.007467017 -0.015248112
0.0515 0.007204853 0.03798208
0.042948883 -0.0515 0.015910234
0.020338349 -0.0515 0.042601947
-0.041818578 -0.040564358 0.0515
-0.046618633 -0.036034182 0.0515
-0.0515 0.02041344 -0.043047499
-0.0083292155 -0.044251971 -0.0515
0.016807325 -0.035345703 -0.0515
-0.032734983 -0.011555376 0.0515
0.042421337 0.0515 -0.00060613424
-0.013864288 0.0515 -0.049081095
-0.042336252 0.044737346 -0.0515
0.0515 -0.013550323 -0.019514659
0.0515 0.020514298 0.0035821646
0.0071533839 0.048926596 0.0515
-0.026933517 0.0515 0.00077130151
-0.0088051716 -0.01431306 0.0515
0.027077699 0.0515 -0.034337327
-0.0515 -0.033554107 0.0072691115
0.0515 -0.043896597 0.0064806174
-0.023585211 -0.0515 0.029834494
0.011707982 0.051214859 -0.0515
0.046481874 0.0062744799 0.0515
-0.0515 -0.046444248 -0.028871799
0.0099860681 0.020628046 -0.0515
-0.0078231404 0.047414884 -0.0515
0.0515 -0.014546703 -0.0083514741
0.03931617 -0.0515 -0.012060839
0.0515 -0.040507015 0.01046224
0.0038174714 -0.0515 0.024521487
-0.0515 0.013647591 -0.045401309
0.016520236 -0.0515 0.047172498
0.0515 0.042576555 -0.018315401
0.01861448 0.0515 -0.0045211543
0.0515 0.00080996146 -0.046414759
-0.0515 0.045406789 -0.045730203
-0.0515 0.040694315 -0.0066526816
-0.012843125 0.0515 0.024570942
0.0515 0.0147991 0.028899064
-0.0043187179 -0.0515 0.047848206
-0.0515 -0.040149942 -0.007688018
-0.032925606 0.0515 0.014968947
-0.0515 0.034592878 -0.0062110573
-0.020468365 -0.034244824 -0.0515
0.0515 -0.020471634 0.047972444
-0.0515 -0.017671347 0.03595718
-0.0515 -0.016161989 0.02461347
0.0064964402 0.0515 -0.024415743
-0.044357479 0.024647806 0.0515
0.040257253 -0.039114103 -0.0515
0.044046301 -0.045498874 -0.0515
-0.0515 0.015287412 -0.046963036
0.026195025 0.027587732 0.0515
-0.0515 -0.049827624 -0.025707621
0.0051217014 -0.0515 0.020712366
-0.0076113176 -0.039020855 -0.0515
-0.048132285 -0.0515 -0.022197498
0.0515 0.03212449 -0.032714233
-0.026250269 0.045731682 0.0515
-0.037195526 0.028837746 -0.0515
-0.0515 -0.033337206 -0.013272557
0.013986294 -0.0014678066 -0.0515
0.044671193 -0.0515 0.048621997
0.019538362 -0.015946308 0.0515
-0.0515 0.041513458 -0.047259826
0.026966726 -0.027367134 -0.0515
0.0515 0.021378299 -0.027596071
-0.0515 0.0014647198 -0.038102936
-0.02538915 0.034287516 -0.0515
-0.029621655 -0.0515 0.029459961
-0.023572002 -0.02602688 -0.0515
0.034002244 0.0515 0.016431099
0.0515 0.029564921 0.048525702
0.024554083 -0.02033606 -0.0515
0.013187739 -0.014635344 -0.0515
0.017335147 -0.0515 -0.0091306102
0.033526227 0.024459217 0.0515
-0.04712224 0.0515 0.0014153634
-0.011945814 -0.0515 -0.024974111
-0.0085187806 -0.0515 -0.049254265
-0.0515 0.029657811 0.028037172
-0.0515 -0.030837659 0.041411154
-0.0515 -0.022622621 -0.023779945
0.043918505 0.0515 0.019465866
-0.04905685 0.0053570084 -0.0515
-0.043589666 -0.039953846 -0.0515
0.0095954752 -0.0515 0.036781847
0.017282637 -0.0515 0.028823953
-0.0515 0.018869784 0.028714752
-0.011890267 -0.042180758 -0.0515
0.0515 -0.034620423 0.044756379
-0.020934438 0.035078585 -0.0515
0.0515 0.036214188 -0.010147544
-0.0515 0.031946342 -0.025412191
0.048434891 0.031884018 0.0515
0.0515 0.049818359 -0.047347303
-0.0515 0.0010138099 -0.042676713
0.04894403 -0.0515 -0.017067291
0.0029611746 -0.033080585 -0.0515
-0.034284823 0.011183676 -0.0515
-0.051377285 -0.0515 -0.0017370809
0.0515 0.014469594 -0.027345138
-0.047944631 0.0065822727 -0.0515
-8.1717306e-05 0.0515 0.043736733
0.0515 0.021887606 -0.0027054006
0.0515 0.016758574 -0.019418795
0.045924012 0.016040243 0.0515
0.050408434 0.0013460221 -0.0515
-0.016706463 -0.0515 -0.034529705
-0.025431998 -0.038710363 0.0515
-0.00037947076 0.0095421337 -0.0515
0.0515 0.0049741189 0.019884821
-0.0515 0.026163038 -0.050743058
-0.021857675 -0.039423577 -0.0515
-0.05001222 0.0515 0.017862635
0.0013187887 0.0515 -0.049870946
0.0515 0.014908423 0.048455544
0.0515 0.016801521 -0.01693384
0.036340225 0.0515 -0.00716516
-0.0515 -0.01903723 0.024537262
0.046358477 0.0515 -0.03025339
0.048933353 0.043643873 0.0515
0.0036826513 -0.0515 -0.00089635141
0.0515 -0.0289138 0.022670617
0.0515 -0.022823162 0.019403331
-0.0047678147 0.0515 -0.018654319
0.023581374 0.03018724 0.0515
0.0515 0.049225017 0.042320497
0.0515 -0.0082900524 0.0040678391
-0.009133378 -0.0096933162 0.0515
-0.0515 -0.043893434 0.027332449
-0.0020621929 -0.0515 -0.0020930027
-0.0515 0.030619759 0.010115339
0.046198156 -0.01769059 0.0515
-0.0064346609 -0.0515 -0.039708208
-0.0515 0.015843388 -0.04564175
-0.0084947906 -0.018874411 0.0515
-0.009513705 0.0515 2.0218433e-05
-0.0515 0.047043696 0.043304048
0.014011304 -0.037512794 -0.0515
-0.0515 0.03113389 0.035655446
-0.047844127 -0.0515 0.014675054
0.010732303 -0.021055572 -0.0515
-0.0515 -0.034705434 0.011828074
0.0515 0.020146642 0.02911621
-0.0515 0.043953858 -0.018578304
-0.028608127 -0.0515 0.040331271
-0.0515 0.01885947 0.038249027
0.0515 0.023020191 0.03631819
0.016773306 -0.041213281 -0.0515
0.0515 0.0042294078 0.011634151
0.022381524 0.038534109 0.0515
-0.03401079 -0.036675338 -0.0515
-0.017143287 -0.0515 -0.050954215
-0.0515 -0.029196063 0.04741865
0.0515 -0.012745642 0.03660154
-0.044384826 0.03458067 0.0515
0.044641446 0.0515 -0.001926344
0.015011407 0.025749713 -0.0515
-0.040915966 -0.027201377 -0.0515
-0.032444336 -0.028622072 0.0515
0.0515 0.048586987 -0.013670743
0.013621499 -0.0515 0.0075409375
